# .PCD v0.7 - Point Cloud Data file format
VERSION 0.7
FIELDS x y z intensity
SIZE 4 4 4 4
TYPE F F F F
COUNT 1 1 1 1
WIDTH 1103
HEIGHT 1
VIEWPOINT 0 0 0 1 0 0 0
POINTS 1103
DATA ascii
-607.71619 -417.72711 997.96295 127
-602.22937 -415.13165 991.76227 127
-600.43689 -415.07523 991.62756 1.6564781e+09
-598.55609 -414.95724 991.3457 1.6564781e+09
-597.04291 -415.09424 991.67291 127
-594.66779 -414.63098 990.56616 1.6816928e+09
-595.10565 -416.13205 994.15228 1.6816928e+09
-595.78961 -417.81439 998.17151 1.6816928e+09
-595.07678 -418.52411 999.867 1.6816928e+09
-593.1391 -418.37399 999.50836 1.6816928e+09
-590.7179 -417.88092 998.33044 1.6816928e+09
-590.70966 -419.09698 1001.2356 1.6816928e+09
-590.34589 -420.06714 1003.5533 1.6816928e+09
-588.09851 -419.69882 1002.6734 1.6816928e+09
-585.86621 -419.33908 1001.814 1.6816928e+09
-585.51227 -420.32562 1004.1708 1.6816928e+09
-583.74176 -420.29807 1004.105 1.6816928e+09
-582.16754 -420.41217 1004.3776 1.6816928e+09
-582.02502 -421.5639 1007.1292 1.6816928e+09
-581.52747 -422.4646 1009.2809 1.6816928e+09
-580.81122 -423.21136 1011.065 1.6816928e+09
-579.23236 -423.33221 1011.3537 1.6816928e+09
-577.96198 -423.67987 1012.1843 1.6816928e+09
-577.18085 -424.3894 1013.8793 1.6816928e+09
-575.73297 -424.61151 1014.41 1.6816928e+09
-574.06909 -424.6752 1014.5621 1.6816928e+09
-573.2489 -425.36526 1016.2107 1.6816928e+09
-571.80164 -425.59286 1016.7545 1.6816928e+09
-570.41278 -425.86548 1017.4058 1.6816928e+09
-569.93536 -426.82236 1019.6918 1.6816928e+09
-568.35022 -426.953 1020.0039 1.6816928e+09
-568.08069 -428.07584 1022.6863 1.6816928e+09
-565.38055 -427.36841 1020.9963 1.6816928e+09
-563.48944 -427.26996 1020.7611 1.6816928e+09
-563.06921 -428.28973 1023.1974 1.6816928e+09
-561.16852 -428.18625 1022.9501 1.6816928e+09
-558.98816 -427.8681 1022.1901 1.6816928e+09
-559.05933 -429.27679 1025.5554 1.6816928e+09
-558.46143 -430.17899 1027.7108 1.6816928e+09
-557.18872 -430.56549 1028.6342 1.6816928e+09
-556.81177 -431.64886 1031.2224 127
-555.17731 -431.76126 1031.491 127
-553.24213 -431.63974 1031.2007 127
-549.89117 -430.40927 1028.261 1.1258981e+09
-549.04425 -431.13715 1029.9999 1.6816928e+09
-549.80884 -433.13928 1034.7831 1.6816928e+09
-548.67596 -433.65479 1036.0146 1.1258981e+09
-546.19489 -433.10455 1034.7002 1.1258981e+09
-543.37201 -432.27884 1032.7275 1.1258981e+09
-542.56555 -433.05713 1034.5868 127
-542.77087 -434.65079 1038.3942 1.6816928e+09
-541.61255 -435.15936 1039.6091 1.1258981e+09
-538.5932 -434.17111 1037.2482 1.1258981e+09
-534.39508 -432.22287 1032.5938 1.1258981e+09
-519.36896 -421.47455 1006.9157 127
-446.43723 -363.50525 868.42523 127
-268.08105 -219.01619 523.23645 127
-86.83812 -71.184471 170.06189 127
-99.917816 -82.184036 196.34019 127
-267.99176 -221.17737 528.39954 127
-395.8858 -327.84525 783.23236 127
-414.80884 -344.69241 823.48083 127
-407.80341 -340.03561 812.35559 1.315634e+09
-405.9628 -339.66812 811.4776 1.315634e+09
-404.86478 -339.92157 812.08307 1.315634e+09
-403.19461 -339.69473 811.54114 1.315634e+09
-401.81784 -339.71432 811.58801 1.315634e+09
-400.82996 -340.06403 812.42346 1.315634e+09
-400.61353 -341.073 814.83386 1.315634e+09
-400.05338 -341.79538 816.55969 1.315634e+09
-398.23923 -341.44766 815.729 1.315634e+09
-397.17578 -341.74347 816.43567 1.315634e+09
-396.1763 -342.09656 817.27924 1.315634e+09
-394.38132 -341.76285 816.48199 1.315634e+09
-393.50735 -342.22775 817.59265 1.315634e+09
-392.63419 -342.69666 818.71289 1.315634e+09
-392.71188 -344.00189 821.83112 1.315634e+09
-392.13348 -344.73981 823.59399 1.315634e+09
-390.89117 -344.89725 823.97015 1.315634e+09
-389.72461 -345.12292 824.50934 1.315634e+09
-388.68805 -345.46585 825.32855 1.315634e+09
-387.9816 -346.10571 826.85724 1.315634e+09
-387.68243 -347.11502 829.26849 1.315634e+09
-388.10132 -348.77704 833.23914 1.315634e+09
-390.83173 -352.5365 842.22052 1.0599614e+09
-403.58768 -365.40094 872.9541 127
-432.26471 -392.83038 938.48395 127
-456.63443 -416.53699 995.11969 127
-448.13013 -410.32202 980.27197 127
-386.29297 -355.04178 848.20575 127
-336.01553 -310.00604 740.61401 127
-350.77917 -324.86212 776.10559 127
-384.22247 -357.19785 853.35663 127
-387.07587 -361.23459 863.00055 127
-381.96875 -357.84473 854.9021 127
-380.51791 -357.86725 854.95587 127
-378.87701 -357.71051 854.58148 127
-376.6561 -357.00278 852.89062 127
-376.25378 -358.01999 855.32074 127
-377.00247 -360.14471 860.39679 127
-381.82767 -366.19586 874.85321 127
-401.73584 -386.81793 924.12 127
-446.58392 -431.71381 1031.3776 127
-493.82202 -479.28851 1145.035 127
-514.47736 -501.34128 1197.7197 6.3572307e+08
-514.31824 -503.20715 1202.1775 6.3572307e+08
-509.83282 -500.83817 1196.5178 6.3572307e+08
-504.53989 -497.65338 1188.9093 6.3572307e+08
-498.78558 -493.98569 1180.1471 6.3572307e+08
-493.16907 -490.42496 1171.6404 6.3572307e+08
-486.61856 -485.90231 1160.8356 6.3572307e+08
-479.9487 -481.2226 1149.6556 6.3572307e+08
-473.11688 -476.341 1137.9934 6.3572307e+08
-467.64389 -472.79251 1129.5159 6.3572307e+08
-462.47079 -469.5188 1121.6948 6.3572307e+08
-456.23816 -465.13733 1111.2274 6.3572307e+08
-448.46234 -459.13901 1096.8972 127
-437.3822 -449.6925 1074.3292 127
-425.61218 -439.45331 1049.8676 127
-418.069 -433.50955 1035.6677 1.6497605e+09
-411.84686 -428.89047 1024.6326 1.6497605e+09
-405.84531 -424.46228 1014.0535 1.6497605e+09
-401.61911 -421.8606 1007.838 1.6497605e+09
-398.9957 -420.92715 1005.608 1.6497605e+09
-398.45444 -422.19174 1008.6291 1.6497605e+09
-398.73114 -424.33792 1013.7564 1.6497605e+09
-396.52142 -423.84528 1012.5795 1.6497605e+09
-393.13559 -422.08554 1008.3754 1.6497605e+09
-388.65964 -419.13455 1001.3254 1.6497605e+09
-383.47336 -415.38782 992.37433 1.6497605e+09
-379.3259 -412.73776 986.04321 1.6497605e+09
-375.27231 -410.16641 979.90027 1.6497605e+09
-371.23782 -407.5928 973.75183 1.6497605e+09
-366.87659 -404.63541 966.68646 1.6497605e+09
-362.51785 -401.65375 959.56323 1.6497605e+09
-357.46304 -397.87003 950.52374 1.6497605e+09
-353.30313 -395.05203 943.7915 1.6497605e+09
-349.39459 -392.49036 937.67157 1.6497605e+09
-345.85147 -390.31723 932.47992 1.6497605e+09
-341.29095 -386.97021 924.48383 1.6497605e+09
-337.78259 -384.79041 919.27612 1.6497605e+09
-333.33975 -381.52042 911.46405 1.6497605e+09
-329.01025 -378.34985 903.88947 1.6497605e+09
-325.25183 -375.80887 897.81897 1.6497605e+09
-320.19122 -371.73178 888.07874 1.6497605e+09
-316.07822 -368.72092 880.88568 1.6497605e+09
-312.86871 -366.74005 876.15332 1.6497605e+09
-310.58286 -365.82791 873.97412 1.6497605e+09
-307.82806 -364.35181 870.44769 1.6497605e+09
-303.76288 -361.30258 863.16302 1.6497605e+09
-299.65738 -358.1752 855.69159 1.6497605e+09
-295.99673 -355.55118 849.42273 1.6497605e+09
-293.15347 -353.88776 845.44879 1.6497605e+09
-290.25623 -352.14221 841.27863 1.6497605e+09
-286.85242 -349.76151 835.591 1.6497605e+09
-283.19812 -347.04974 829.11255 1.6497605e+09
-280.4451 -345.42056 825.22034 1.6497605e+09
-277.70215 -343.7872 821.31824 1.6497605e+09
-273.82211 -340.72223 813.99591 1.6497605e+09
-270.31284 -338.08936 807.70587 1.6497605e+09
-266.45041 -334.98523 800.29004 1.6497605e+09
-260.63025 -329.37463 786.88617 1.6497605e+09
-241.33279 -306.58405 732.43872 127
-179.81378 -229.63387 548.60242 127
-79.782143 -102.42606 244.69901 1.0252024e+09
-27.83585 -35.926357 85.829178 127
-58.378323 -75.74894 180.96655 1.1896415e+09
-136.97919 -178.69327 426.90372 127
-184.3799 -241.82901 577.73694 127
-195.79649 -258.19846 616.84406 1.6497605e+09
-195.28217 -258.92743 618.58563 1.6497605e+09
-192.8495 -257.10687 614.23627 1.6497605e+09
-191.3564 -256.52576 612.84796 1.6497605e+09
-190.31664 -256.54929 612.90411 1.6497605e+09
-189.20895 -256.48102 612.74109 1.6497605e+09
-187.76689 -255.95616 611.48712 1.6497605e+09
-186.35625 -255.46844 610.32196 1.6497605e+09
-185.00574 -255.05809 609.34161 1.6497605e+09
-183.85155 -254.91525 609.00037 1.6497605e+09
-181.92706 -253.69658 606.08893 1.6497605e+09
-180.09077 -252.58754 603.43939 1.6497605e+09
-179.19717 -252.79546 603.93616 1.6497605e+09
-178.01875 -252.60167 603.47321 1.6497605e+09
-177.21114 -252.93483 604.2691 1.6497605e+09
-175.98654 -252.67328 603.64423 1.6497605e+09
-174.85892 -252.54865 603.3465 1.6497605e+09
-173.96066 -252.7558 603.84143 1.6497605e+09
-172.89723 -252.72401 603.76544 1.6497605e+09
-172.00195 -252.93912 604.27936 1.6497605e+09
-171.00262 -253.0029 604.4317 1.6497605e+09
-170.14922 -253.28467 605.10486 1.6497605e+09
-169.38057 -253.69688 606.08966 1.6497605e+09
-168.70331 -254.25194 607.41571 1.6497605e+09
-168.20949 -255.09213 609.42297 1.6497605e+09
-168.0544 -256.45981 612.69043 1.6497605e+09
-169.14763 -259.76184 620.5791 1.6497605e+09
-172.6254 -266.79126 637.3725 127
-174.77066 -271.83823 649.42987 1.6497605e+09
-174.02061 -272.41785 650.81464 127
-172.48062 -271.76038 649.2439 1.6497605e+09
-170.62268 -270.59009 646.44812 1.6497605e+09
-168.49719 -268.97733 642.59509 2.0890185e+09
-166.72574 -267.91208 640.05017 2.0890185e+09
-164.9043 -266.75174 637.27814 2.0890185e+09
-162.63181 -264.84134 632.71411 2.0890185e+09
-160.40439 -262.979 628.26495 2.0890185e+09
-158.29996 -261.29437 624.2403 2.0890185e+09
-155.7888 -258.91064 618.54553 5.2159536e+08
-154.04955 -257.7858 615.85822 127
-152.76796 -257.41647 614.97589 127
-151.58385 -257.20737 614.47638 1.6497605e+09
-150.29706 -256.81992 613.55066 1.6497605e+09
-149.14731 -256.66275 613.17523 1.6497605e+09
-147.41478 -255.49333 610.38141 1.6497605e+09
-145.1857 -253.44026 605.47662 1.6497605e+09
-142.76335 -251.01761 599.68884 1.6497605e+09
-140.83867 -249.44102 595.9223 1.6497605e+09
-139.40396 -248.71545 594.1889 1.6497605e+09
-138.33458 -248.63574 593.99841 1.6497605e+09
-136.43272 -247.04741 590.20392 1.6497605e+09
-134.49567 -245.37097 586.19885 1.6497605e+09
-133.16083 -244.77617 584.77783 1.6497605e+09
-131.50211 -243.57234 581.90186 1.6497605e+09
-129.90498 -242.465 579.25635 1.6497605e+09
-128.37814 -241.47266 576.88562 1.6497605e+09
-126.91819 -240.5916 574.78076 1.6497605e+09
-125.08965 -238.99246 570.96039 1.6497605e+09
-123.42358 -237.68085 567.82684 1.6497605e+09
-122.08293 -236.97989 566.15228 1.6497605e+09
-120.36347 -235.5264 562.67981 1.6497605e+09
-118.67596 -234.11227 559.30145 1.6497605e+09
-117.1075 -232.91176 556.43341 1.6497605e+09
-115.87383 -232.36278 555.12183 1.6497605e+09
-692.96942 -465.0083 1115.8347 127
-692.91193 -466.26492 1118.8501 127
-691.57153 -466.66284 1119.8049 127
-680.42413 -460.42682 1104.8411 127
-654.58368 -444.18542 1065.8682 127
-638.28021 -434.34235 1042.2487 1.6533774e+09
-647.39252 -441.78766 1060.1144 127
-636.37054 -435.49637 1045.0178 1.6533774e+09
-613.33276 -420.923 1010.0475 8.5948442e+08
-602.91724 -414.9538 995.72388 127
-598.72583 -413.24643 991.62683 1.6564781e+09
-598.05066 -413.96317 993.34674 1.6564781e+09
-596.72412 -414.23184 993.99146 1.6816928e+09
-596.74915 -415.44305 996.89783 1.6564781e+09
-597.01227 -416.82745 1000.2199 1.6816928e+09
-595.74237 -417.14642 1000.9853 1.6816928e+09
-594.71143 -417.63507 1002.1578 1.6816928e+09
-592.65186 -417.40216 1001.5989 1.6816928e+09
-591.65143 -417.91595 1002.8318 1.6816928e+09
-589.84998 -417.86533 1002.7104 1.6816928e+09
-589.1123 -418.57022 1004.4019 1.6816928e+09
-587.96771 -418.98929 1005.4074 1.6816928e+09
-587.18842 -419.67194 1007.0455 1.6816928e+09
-586.32983 -420.30179 1008.5569 1.6816928e+09
-584.96759 -420.57327 1009.2084 1.6816928e+09
-583.35205 -420.66373 1009.4255 1.6816928e+09
-581.00385 -420.22479 1008.3721 1.6816928e+09
-580.65729 -421.23535 1010.7971 1.6816928e+09
-580.40027 -422.31711 1013.3929 1.6816928e+09
-579.36475 -422.83722 1014.6409 1.6816928e+09
-578.49536 -423.48212 1016.1884 1.6816928e+09
-576.46075 -423.27539 1015.6924 127
-574.34491 -423.00751 1015.0496 127
-575.20013 -424.93292 1019.6698 1.6816928e+09
-573.84723 -425.23386 1020.3919 127
-571.53607 -424.82437 1019.4093 1.6816928e+09
-571.40356 -426.03674 1022.3185 127
-569.24158 -425.7388 1021.6036 127
-568.92133 -426.82071 1024.1997 1.6816928e+09
-566.49402 -426.32364 1023.007 1.6816928e+09
-565.36511 -426.80368 1024.1588 1.6816928e+09
-565.13025 -427.96378 1026.9426 1.6816928e+09
-561.7644 -426.75266 1024.0364 1.6816928e+09
-559.66492 -426.49896 1023.4276 1.6816928e+09
-560.20978 -428.26517 1027.6659 1.6816928e+09
-559.76666 -429.28491 1030.1128 1.6816928e+09
-558.2644 -429.49631 1030.6201 1.6816928e+09
-557.21307 -430.05707 1031.9657 127
-555.35388 -429.99597 1031.8191 1.1258981e+09
-553.02814 -429.57202 1030.8018 1.1258981e+09
-550.55188 -429.02805 1029.4965 1.1258981e+09
-551.05408 -430.80911 1033.7703 1.6816928e+09
-551.07617 -432.22516 1037.1683 1.6816928e+09
-549.1225 -432.09576 1036.8578 1.1258981e+09
-546.47418 -431.41711 1035.2292 1.1258981e+09
-544.74738 -431.4639 1035.3416 1.1258981e+09
-543.48126 -431.87704 1036.3329 1.6816928e+09
-543.47717 -433.29913 1039.7454 1.6816928e+09
-542.38934 -433.86371 1041.1001 1.1258981e+09
-539.52753 -433.00833 1039.0476 1.1258981e+09
-537.16388 -432.5484 1037.9438 1.1258981e+09
-534.84436 -432.121 1036.9183 1.1258981e+09
-514.42566 -417.01868 1000.6788 127
-396.87616 -322.81055 774.61676 127
-161.52165 -131.8221 316.32053 1.3691331e+09
-65.227768 -53.414558 128.17366 127
-166.26056 -136.61269 327.81604 1.3691331e+09
-328.39252 -270.75394 649.7016 127
-388.34879 -321.28336 770.95209 127
-401.28748 -333.12848 799.37567 1.315634e+09
-404.95172 -337.32956 809.4566 1.315634e+09
-404.49255 -338.11298 811.33649 1.315634e+09
-403.14523 -338.15686 811.44177 1.315634e+09
-402.22809 -338.56311 812.41663 1.315634e+09
-400.6102 -338.38034 811.97803 1.315634e+09
-399.24588 -338.41119 812.05212 1.315634e+09
-398.71649 -339.1525 813.83093 1.315634e+09
-397.36478 -339.19708 813.93787 1.315634e+09
-396.75488 -339.87744 815.5705 1.315634e+09
-396.59036 -340.94553 818.13348 1.315634e+09
-394.60107 -340.44687 816.93695 1.315634e+09
-393.9624 -341.11414 818.53809 1.315634e+09
-392.58679 -341.14581 818.61407 1.315634e+09
-392.12436 -341.97409 820.60162 1.315634e+09
-390.81573 -342.06772 820.82629 1.315634e+09
-389.93155 -342.53491 821.94739 1.315634e+09
-389.33679 -343.26065 823.68884 1.315634e+09
-387.79196 -343.151 823.42578 1.315634e+09
-387.65671 -344.29248 826.16486 1.315634e+09
-388.16226 -346.01358 830.2948 127
-389.13608 -348.16644 835.46075 1.315634e+09
-396.62723 -356.18808 854.70953 127
-424.7822 -382.89584 918.79755 127
-466.14172 -421.75073 1012.0338 127
-485.57657 -440.98642 1058.1918 127
-478.23022 -435.95361 1046.1151 127
-424.44937 -388.39276 931.98792 127
-318.91785 -292.93564 702.92889 127
-266.47049 -245.69537 589.57104 127
-314.88458 -291.4473 699.35742 127
-345.48453 -320.99951 770.271 127
-369.01169 -344.18304 825.90228 127
-380.48746 -356.26224 854.88745 127
-380.61618 -357.76947 858.50427 127
-378.37393 -357.05112 856.78046 127
-377.13791 -357.28036 857.33057 127
-376.28226 -357.8732 858.75317 127
-377.08182 -360.05115 863.97937 127
-381.56198 -365.77472 877.71368 127
-400.38962 -385.35254 924.69269 127
-441.83878 -426.94601 1024.5004 127
-489.08926 -474.50186 1138.6155 127
-507.34897 -494.20172 1185.8873 6.3572307e+08
-505.53452 -494.42792 1186.4302 6.3572307e+08
-500.05075 -491.05273 1178.3309 6.3572307e+08
-494.11407 -487.20337 1169.0941 6.3572307e+08
-488.15326 -483.29855 1159.7241 6.3572307e+08
-482.61703 -479.78372 1151.2899 6.3572307e+08
-475.68304 -474.84454 1139.4379 6.3572307e+08
-468.81165 -469.92709 1127.6379 6.3572307e+08
-463.53976 -466.57867 1119.603 6.3572307e+08
-458.34875 -463.284 1111.6971 6.3572307e+08
-450.91241 -457.68256 1098.2559 6.3572307e+08
-440.61505 -449.11765 1077.7035 127
-427.896 -438.00128 1051.0287 127
-418.00583 -429.69827 1031.1047 1.6497605e+09
-412.88266 -426.24564 1022.8198 1.6497605e+09
-408.97458 -424.0231 1017.4866 1.6497605e+09
-403.9155 -420.58295 1009.2316 1.6497605e+09
-399.07132 -417.33777 1001.4445 1.6497605e+09
-395.25269 -415.14151 996.17426 1.6497605e+09
-392.62241 -414.17963 993.86615 1.6497605e+09
-391.50113 -414.80817 995.37445 1.6497605e+09
-391.69162 -416.83826 1000.2458 1.6497605e+09
-389.6958 -416.54932 999.55249 1.6497605e+09
-386.07468 -414.51279 994.66565 1.6497605e+09
-381.11801 -411.01776 986.27899 1.6497605e+09
-375.97757 -407.2923 977.33936 1.6497605e+09
-371.96866 -404.76462 971.27386 1.6497605e+09
-368.18533 -402.4606 965.74512 1.6497605e+09
-363.85495 -399.53494 958.72473 1.6497605e+09
-359.74271 -396.82318 952.21759 1.6497605e+09
-354.20432 -392.50616 941.85852 1.6497605e+09
-350.51105 -390.20346 936.33295 1.6497605e+09
-347.3652 -388.49167 932.22528 1.6497605e+09
-343.32129 -385.75488 925.65808 1.6497605e+09
-338.77811 -382.42892 917.67712 1.6497605e+09
-334.92297 -379.85205 911.49365 1.6497605e+09
-330.68137 -376.81052 904.19519 1.6497605e+09
-327.05426 -374.44366 898.51569 1.6497605e+09
-323.03711 -371.60562 891.70551 1.6497605e+09
-318.51303 -368.15445 883.42407 1.6497605e+09
-314.91867 -365.74991 877.65411 1.6497605e+09
-310.72562 -362.62344 870.15186 1.6497605e+09
-308.09433 -361.29803 866.97144 1.6497605e+09
-305.54388 -360.05502 863.98871 1.6497605e+09
-301.30319 -356.79822 856.17365 1.6497605e+09
-297.70764 -354.27713 850.12402 1.6497605e+09
-295.20428 -353.03717 847.14862 1.6497605e+09
-291.93582 -350.86536 841.93713 1.6497605e+09
-288.39313 -348.34058 835.87866 1.6497605e+09
-284.46127 -345.31802 828.62573 1.6497605e+09
-281.03647 -342.88354 822.78394 1.6497605e+09
-278.6626 -341.71307 819.97528 1.6497605e+09
-275.81458 -339.94626 815.73566 1.6497605e+09
-271.98352 -336.94351 808.53027 1.6497605e+09
-267.28644 -332.83142 798.6629 1.6497605e+09
-255.03593 -319.22229 766.00635 127
-224.50613 -282.47247 677.82141 127
-174.23405 -220.36815 528.79578 127
-102.29536 -130.06232 312.09778 127
-47.293709 -60.449219 145.05406 6.2817504e+08
-62.621677 -80.466667 193.08795 1.1896415e+09
-125.72176 -162.41196 389.724 2.145174e+09
-181.43402 -235.64322 565.44989 127
-197.47029 -257.85715 618.75452 1.6497605e+09
-196.38974 -257.8399 618.71307 1.6497605e+09
-194.34804 -256.55365 615.62659 1.6497605e+09
-192.52303 -255.54092 613.19641 1.6497605e+09
-190.84045 -254.70708 611.19556 1.6497605e+09
-189.86777 -254.8167 611.45862 1.6497605e+09
-189.16055 -255.28581 612.58429 1.6497605e+09
-187.26654 -254.14954 609.85767 1.6497605e+09
-185.78661 -253.56558 608.45642 1.6497605e+09
-184.55286 -253.31287 607.84998 1.6497605e+09
-183.63499 -253.49333 608.28302 1.6497605e+09
-181.93951 -252.59627 606.13043 1.6497605e+09
-180.17827 -251.597 603.7326 1.6497605e+09
-179.32304 -251.8586 604.36035 1.6497605e+09
-178.06589 -251.55547 603.63293 1.6497605e+09
-177.25896 -251.88855 604.43219 1.6497605e+09
-175.8485 -251.36285 603.17078 1.6497605e+09
-174.58679 -251.04482 602.40759 1.6497605e+09
-173.79916 -251.40872 603.28082 1.6497605e+09
-172.80869 -251.48184 603.4563 1.6497605e+09
-172.22139 -252.14612 605.05029 1.6497605e+09
-171.41095 -252.48982 605.875 1.6497605e+09
-170.23584 -252.29727 605.41296 1.6497605e+09
-169.32089 -252.4903 605.87616 1.6497605e+09
-168.59506 -252.96947 607.026 1.6497605e+09
-167.99872 -253.65016 608.65936 1.6497605e+09
-168.11179 -255.41722 612.8996 1.6497605e+09
-168.96042 -258.3313 619.89227 1.6497605e+09
-171.35124 -263.65546 632.66809 127
-173.94139 -269.35651 646.34839 1.6497605e+09
-173.37592 -270.21298 648.40356 1.6497605e+09
-171.82817 -269.53973 646.78802 1.6497605e+09
-170.26003 -268.82547 645.07404 1.6497605e+09
-168.06744 -267.10941 640.95618 1.6497605e+09
-165.86459 -265.35416 636.74432 1.6497605e+09
-164.32785 -264.64828 635.05048 1.6497605e+09
-162.33003 -263.18539 631.5401 2.0890185e+09
-160.44499 -261.88681 628.42401 1.6497605e+09
-158.64998 -260.71851 625.62054 2.0890185e+09
-156.52124 -258.98199 621.45361 2.0890185e+09
-154.6837 -257.7067 618.39343 2.0890185e+09
-152.927 -256.54932 615.61615 127
-151.06352 -255.19534 612.36719 1.6497605e+09
-149.4247 -254.20447 609.9895 127
-148.21375 -253.93265 609.33722 1.6497605e+09
-146.41258 -252.6385 606.23181 1.6497605e+09
-144.22655 -250.65683 601.47656 1.6497605e+09
-141.81142 -248.24542 595.69012 1.6497605e+09
-139.88789 -246.66568 591.89941 1.6497605e+09
-138.70242 -246.37366 591.19867 1.6497605e+09
-137.60306 -246.23141 590.85736 1.6497605e+09
-135.58984 -244.43956 586.55762 1.6497605e+09
-133.72647 -242.89294 582.84631 1.6497605e+09
-132.29462 -242.11259 580.97382 1.6497605e+09
-130.72231 -241.06133 578.45117 1.6497605e+09
-129.22868 -240.14011 576.24066 1.6497605e+09
-127.74767 -239.22824 574.05249 1.6497605e+09
-126.20614 -238.18788 571.55603 1.6497605e+09
-124.46449 -236.75049 568.10687 1.6497605e+09
-122.892 -235.61459 565.38123 1.6497605e+09
-121.35064 -234.52071 562.75629 1.6497605e+09
-119.63607 -233.07173 559.27936 1.6497605e+09
-118.00898 -231.771 556.15808 1.6497605e+09
-116.53175 -230.74568 553.69775 1.6497605e+09
-115.26502 -230.12369 552.2052 1.6497605e+09
-694.52972 -463.99316 1118.3472 127
-694.32849 -465.15076 1121.1375 127
-694.03644 -466.25388 1123.7961 127
-691.5127 -465.85971 1122.8461 127
-688.58331 -465.1893 1121.2302 1.9145449e+09
-687.55835 -465.8053 1122.715 1.9145449e+09
-683.44159 -464.32425 1119.1453 127
-659.04333 -449.01666 1082.2499 127
-616.3703 -421.13593 1015.0499 8.5948442e+08
-605.10602 -414.61746 999.33862 127
-598.55798 -411.30255 991.34882 1.6564781e+09
-597.34106 -411.64246 992.16809 1.6564781e+09
-597.5647 -412.97989 995.3916 1.6564781e+09
-597.86188 -414.37601 998.75665 1.6564781e+09
-598.07068 -415.71878 1001.9931 1.6816928e+09
-596.94348 -416.13797 1003.0035 1.6816928e+09
-595.43994 -416.29648 1003.3856 1.6816928e+09
-593.26892 -415.98788 1002.6417 1.6816928e+09
-592.58337 -416.72214 1004.4115 1.6816928e+09
-591.54474 -417.21167 1005.5914 1.6816928e+09
-589.83203 -417.22723 1005.6289 1.6816928e+09
-589.758 -418.40549 1008.4688 1.6816928e+09
-589.0036 -419.10657 1010.1586 1.6816928e+09
-587.61224 -419.35724 1010.7628 1.6816928e+09
-586.54553 -419.84183 1011.9307 1.6816928e+09
-584.21582 -419.42252 1010.9201 1.6816928e+09
-583.04291 -419.83368 1011.9111 1.6816928e+09
-582.59741 -420.77271 1014.1744 1.6816928e+09
-581.94781 -421.56949 1016.0949 1.6816928e+09
-581.14789 -422.2619 1017.7638 1.6816928e+09
-579.36273 -422.24045 1017.7121 1.6816928e+09
-575.77094 -420.89819 1014.4769 127
-573.86499 -420.78391 1014.2014 127
-574.91473 -422.84277 1019.1638 1.6816928e+09
-574.31299 -423.69589 1021.2201 1.6816928e+09
-571.11292 -422.63147 1018.6545 1.6816928e+09
-570.6601 -423.59979 1020.9885 127
-568.80371 -423.52896 1020.8177 1.6816928e+09
-568.57837 -424.67593 1023.5823 127
-568.48981 -425.93259 1026.6111 1.6816928e+09
-567.99908 -426.89481 1028.9303 1.6816928e+09
-566.08356 -426.78885 1028.6749 127
-563.20581 -425.95453 1026.6639 1.6816928e+09
-561.48688 -425.99408 1026.7593 1.6816928e+09
-560.5553 -426.63315 1028.2997 1.6816928e+09
-559.52759 -427.20288 1029.6729 1.6816928e+09
-558.6684 -427.90533 1031.366 127
-557.71887 -428.54285 1032.9025 1.6816928e+09
-555.90894 -428.52118 1032.8502 127
-554.86346 -429.09058 1034.2227 1.6816928e+09
-553.17578 -429.16537 1034.4031 1.6816928e+09
-551.42352 -429.19043 1034.4634 1.6816928e+09
-551.23291 -430.43506 1037.4633 1.6816928e+09
-550.0307 -430.89532 1038.5726 1.6816928e+09
-548.54993 -431.13962 1039.1615 1.6816928e+09
-547.70471 -431.88672 1040.9622 1.6816928e+09
-545.27777 -431.38736 1039.7585 1.6816928e+09
-544.2038 -431.95862 1041.1355 1.6816928e+09
-542.59357 -432.10663 1041.4922 127
-540.91016 -432.19711 1041.7103 1.1258981e+09
-539.08105 -432.17139 1041.6483 1.1258981e+09
-537.96979 -432.72293 1042.9777 1.6816928e+09
-533.67395 -430.70804 1038.1212 1.1258981e+09
-479.37411 -388.18732 935.63495 127
-306.16812 -248.76625 599.59302 127
-117.84718 -96.077209 231.5717 127
-71.475304 -58.469837 140.9279 127
-152.27736 -124.99451 301.27008 127
-268.1218 -220.83733 532.27686 127
-368.04803 -304.18286 733.1618 127
-401.70926 -333.14789 802.97528 1.315634e+09
-403.89111 -336.11636 810.13007 1.315634e+09
-403.39838 -336.87198 811.95129 1.315634e+09
-402.99866 -337.71078 813.97308 1.315634e+09
-401.05487 -337.25702 812.87933 1.315634e+09
-399.19846 -336.87381 811.95569 1.315634e+09
-397.9949 -337.04074 812.35803 1.315634e+09
-397.30127 -337.64221 813.80774 1.315634e+09
-397.151 -338.71136 816.38477 127
-397.01709 -339.80212 819.01373 1.315634e+09
-395.22055 -339.4726 818.21948 1.315634e+09
-393.83878 -339.4982 818.28119 1.315634e+09
-392.83527 -339.85129 819.1322 1.315634e+09
-392.10345 -340.44278 820.55786 1.315634e+09
-390.67551 -340.43195 820.5318 1.315634e+09
-389.86523 -340.96124 821.80756 1.315634e+09
-389.11539 -341.54745 823.22046 1.315634e+09
-387.26871 -341.17169 822.31476 1.315634e+09
-387.83505 -342.92676 826.54492 1.315634e+09
-388.99359 -345.22037 832.07312 1.315634e+09
-389.91245 -347.31741 837.12756 1.315634e+09
-402.06363 -359.47253 866.42468 127
-440.49829 -395.3053 952.7912 127
-479.72382 -432.1189 1041.5217 127
-492.23373 -445.05426 1072.6995 127
-490.16364 -444.85495 1072.219 127
-472.33307 -430.29636 1037.1289 127
-382.25876 -349.56256 842.539 127
-211.33939 -194.00029 467.59244 127
-140.31941 -129.30058 311.6489 127
-191.47525 -177.11792 426.90143 127
-308.11603 -286.11313 689.60889 127
-379.78833 -354.03412 853.31665 127
-385.88901 -361.12082 870.39746 127
-379.63406 -356.65509 859.63391 127
-377.19946 -355.75754 857.47052 127
-376.3822 -356.38434 858.98126 127
-376.45206 -357.85938 862.5365 127
-376.50671 -359.33157 866.08496 127
-380.20605 -364.30783 878.07904 127
-402.02838 -386.75854 932.19122 127
-451.61951 -436.21097 1051.3848 127
-489.59787 -474.80038 1144.3955 127
-498.55112 -485.44046 1170.041 127
-494.64578 -483.5957 1165.5946 6.3572307e+08
-488.73529 -479.76752 1156.3677 6.3572307e+08
-483.53842 -476.61133 1148.7604 6.3572307e+08
-478.53937 -473.625 1141.5625 6.3572307e+08
-471.31299 -468.40039 1128.9698 6.3572307e+08
-464.47601 -463.52106 1117.2094 6.3572307e+08
-457.86163 -458.82413 1105.8885 6.3572307e+08
-450.96524 -453.80408 1093.7888 6.3572307e+08
-441.46414 -446.10974 1075.2434 127
-430.10764 -436.46762 1052.0033 127
-420.58673 -428.61441 1033.0751 1.6497605e+09
-414.24814 -423.95126 1021.8356 1.6497605e+09
-409.7977 -421.18884 1015.1774 1.6497605e+09
-406.68027 -419.77872 1011.7786 1.6497605e+09
-402.1456 -416.88721 1004.8093 1.6497605e+09
-397.18591 -413.52814 996.71313 1.6497605e+09
-393.12057 -411.0751 990.8006 1.6497605e+09
-388.97397 -408.51526 984.63074 1.6497605e+09
-386.10898 -407.28485 981.6651 1.6497605e+09
-385.45517 -408.38635 984.32007 1.6497605e+09
-384.96484 -409.67157 987.41779 1.6497605e+09
-381.67395 -407.97467 983.32776 1.6497605e+09
-377.45886 -405.27032 976.80957 1.6497605e+09
-372.58548 -401.83179 968.52179 1.6497605e+09
-368.67963 -399.41043 962.68567 1.6497605e+09
-364.70761 -396.89514 956.62311 1.6497605e+09
-361.11575 -394.77258 951.50714 1.6497605e+09
-357.03821 -392.09726 945.05896 1.6497605e+09
-352.24384 -388.60657 936.64545 1.6497605e+09
-348.66507 -386.431 931.40173 1.6497605e+09
-345.02933 -384.17178 925.95648 1.6497605e+09
-340.76392 -381.18726 918.76294 1.6497605e+09
-336.129 -377.75952 910.50122 1.6497605e+09
-331.99905 -374.86981 903.53619 1.6497605e+09
-328.04791 -372.15567 896.99445 1.6497605e+09
-324.90106 -370.33258 892.60028 1.6497605e+09
-321.25015 -367.91483 886.77283 1.6497605e+09
-317.34604 -365.18253 880.18732 1.6497605e+09
-313.47784 -362.46558 873.63867 1.6497605e+09
-309.71637 -359.84628 867.3255 1.6497605e+09
-307.03268 -358.45993 863.98401 1.6497605e+09
-303.68558 -356.28174 858.73395 1.6497605e+09
-299.77911 -353.42267 851.8429 1.6497605e+09
-296.14685 -350.86035 845.66705 1.6497605e+09
-293.40756 -349.33585 841.99255 1.6497605e+09
-289.89517 -346.87112 836.05194 1.6497605e+09
-286.74405 -344.81619 831.09894 1.6497605e+09
-282.91779 -341.92465 824.12958 1.6497605e+09
-279.52914 -339.53546 818.37103 1.6497605e+09
-276.68274 -337.784 814.14954 1.6497605e+09
-273.52557 -335.63333 808.96588 1.6497605e+09
-269.2226 -332.04742 800.32288 1.6497605e+09
-254.6087 -315.64197 760.78131 127
-207.65074 -258.76135 623.68384 127
-130.74925 -163.78012 394.75375 2.145174e+09
-69.140358 -87.060562 209.83917 127
-50.998337 -64.554367 155.59325 6.2817504e+08
-81.336983 -103.50217 249.46785 1.0252024e+09
-143.3723 -183.41321 442.07477 1.1311762e+09
-182.27803 -234.43147 565.04236 127
-196.28456 -253.8028 611.73242 1.6497605e+09
-197.5811 -256.86026 619.10168 1.6497605e+09
-195.9641 -256.14267 617.37213 1.6497605e+09
-194.08147 -255.06813 614.78223 1.6497605e+09
-192.31827 -254.1396 612.54425 1.6497605e+09
-190.62538 -253.29428 610.50677 1.6497605e+09
-189.31979 -252.95702 609.69385 1.6497605e+09
-188.2375 -252.91603 609.59509 1.6497605e+09
-186.20221 -251.58691 606.39154 1.6497605e+09
-184.62604 -250.86664 604.65552 1.6497605e+09
-183.78656 -251.14485 605.32605 1.6497605e+09
-183.30859 -251.9231 607.20184 1.6497605e+09
-181.99028 -251.54875 606.29956 1.6497605e+09
-180.42233 -250.82303 604.55042 1.6497605e+09
-179.49147 -250.97969 604.92798 1.6497605e+09
-178.21432 -250.65115 604.13611 1.6497605e+09
-177.39714 -250.96948 604.90338 1.6497605e+09
-175.99495 -250.45905 603.6731 127
-174.64661 -250.01962 602.61395 1.6497605e+09
-173.93457 -250.4913 603.75085 1.6497605e+09
-173.17374 -250.89798 604.73108 1.6497605e+09
-172.44206 -251.35208 605.82556 1.6497605e+09
-171.52855 -251.54506 606.29065 1.6497605e+09
-170.4666 -251.52138 606.23358 1.6497605e+09
-169.81689 -252.10944 607.651 1.6497605e+09
-168.97813 -252.42238 608.40521 1.6497605e+09
-168.17188 -252.7881 609.28674 1.6497605e+09
-168.5293 -254.91859 614.42181 1.6497605e+09
-169.50934 -258.0238 621.90613 1.6497605e+09
-171.30655 -262.42035 632.50305 127
-173.435 -267.38397 644.46667 1.6497605e+09
-172.77055 -268.07803 646.13959 1.6497605e+09
-171.37947 -267.64633 645.09906 1.6497605e+09
-170.05319 -267.31085 644.29041 1.6497605e+09
-167.80452 -265.51147 639.95349 1.6497605e+09
-165.28833 -263.26218 634.53204 1.6497605e+09
-163.42911 -262.03625 631.57721 1.6497605e+09
-161.25371 -260.28351 627.35266 1.6497605e+09
-159.54073 -259.25854 624.8822 1.6497605e+09
-158.19136 -258.81451 623.81201 1.6497605e+09
-156.326 -257.51443 620.67847 1.6497605e+09
-154.3215 -255.96564 616.94543 1.6497605e+09
-152.26566 -254.30956 612.95386 127
-150.40407 -252.95705 609.69397 1.6497605e+09
-148.69379 -251.84172 607.00574 1.6497605e+09
-147.15631 -251.00536 604.98987 1.6497605e+09
-145.45767 -249.88019 602.27789 1.6497605e+09
-143.62717 -248.51067 598.97699 1.6497605e+09
-141.47644 -246.5632 594.28308 1.6497605e+09
-139.61508 -245.09529 590.745 1.6497605e+09
-138.24205 -244.46939 589.23639 1.6497605e+09
-136.85173 -243.80339 587.63116 1.6497605e+09
-135.02379 -242.34201 584.10889 1.6497605e+09
-133.39874 -241.22556 581.41791 1.6497605e+09
-131.84509 -240.22226 578.99969 1.6497605e+09
-130.17967 -238.99844 576.04999 1.6497605e+09
-128.49428 -237.71887 572.96588 1.6497605e+09
-126.76949 -236.34601 569.65692 1.6497605e+09
-125.32344 -235.4754 567.55853 1.6497605e+09
-123.8166 -234.47598 565.14966 1.6497605e+09
-122.2197 -233.28879 562.28821 1.6497605e+09
-120.79728 -232.41833 560.19012 1.6497605e+09
-119.22765 -231.24829 557.37006 1.6497605e+09
-117.63268 -230.00967 554.38464 1.6497605e+09
-116.2486 -229.1665 552.35236 1.6497605e+09
-114.99306 -228.56487 550.90228 1.6497605e+09
-697.14612 -463.67111 1122.5602 6.0841376e+08
-697.22644 -465.01624 1125.8168 6.0841376e+08
-697.22455 -466.3139 1128.9585 6.0841376e+08
-696.08228 -466.854 1130.266 6.0841376e+08
-694.56061 -467.14194 1130.9631 6.0841376e+08
-694.27582 -468.26578 1133.684 127
-690.2843 -466.88879 1130.3503 127
-658.70831 -446.79385 1081.6998 127
-602.78235 -410.02145 992.67291 127
-595.88666 -406.48572 984.11279 127
-572.40277 -391.58173 948.02985 127
-586.53571 -402.39981 974.2207 127
-597.59961 -411.16846 995.44983 1.6564781e+09
-597.89648 -412.5582 998.81445 1.6564781e+09
-597.86853 -413.73126 1001.6545 1.6816928e+09
-596.8219 -414.20407 1002.7992 1.6816928e+09
-595.98962 -414.82886 1004.3118 1.6816928e+09
-593.97998 -414.63541 1003.8434 1.6816928e+09
-592.58063 -414.8681 1004.4068 1.6816928e+09
-592.633 -416.12152 1007.4413 1.6816928e+09
-591.534 -416.57147 1008.5307 1.6816928e+09
-591.20984 -417.57135 1010.9514 1.6816928e+09
-589.45886 -417.56638 1010.9393 1.6816928e+09
-587.43842 -417.36996 1010.4638 1.6816928e+09
-586.96997 -418.27829 1012.663 1.6816928e+09
-585.45465 -418.44385 1013.0638 1.6816928e+09
-584.54565 -419.04504 1014.5193 1.6816928e+09
-583.43372 -419.50388 1015.6301 1.6816928e+09
-581.94897 -419.69672 1016.097 1.6816928e+09
-581.26715 -420.47144 1017.9727 1.6816928e+09
-579.76337 -420.65451 1018.4158 1.6816928e+09
-577.18567 -420.05713 1016.9695 1.6816928e+09
-576.75616 -421.02426 1019.311 1.6816928e+09
-576.23206 -421.92807 1021.4991 1.6816928e+09
-575.65479 -422.79831 1023.606 1.6816928e+09
-573.35138 -422.40225 1022.6472 1.6816928e+09
-571.52881 -422.3591 1022.5427 1.6816928e+09
-569.5824 -422.22382 1022.2152 1.6816928e+09
-568.81464 -422.9642 1024.0077 1.6816928e+09
-569.66046 -424.91272 1028.7251 1.6816928e+09
-568.60376 -425.44995 1030.0258 1.6816928e+09
-565.11768 -424.16705 1026.9198 1.6816928e+09
-564.46155 -425.0069 1028.9531 1.6816928e+09
-564.47595 -426.35846 1032.2252 1.6816928e+09
-562.29193 -426.05289 1031.4855 1.6816928e+09
-559.55121 -425.32214 1029.7163 1.6816928e+09
-558.69263 -426.022 1031.4106 1.6816928e+09
-557.83997 -426.7308 1033.1267 1.6816928e+09
-556.65295 -427.18759 1034.2325 1.6816928e+09
-556.29395 -428.28482 1036.889 1.6816928e+09
-555.00116 -428.66785 1037.8164 1.6816928e+09
-552.06323 -427.77863 1035.6636 1.6816928e+09
-552.37036 -429.40625 1039.604 1.6816928e+09
-551.25995 -429.93896 1040.8937 1.6816928e+09
-549.21338 -429.74261 1040.4183 1.6816928e+09
-548.05444 -430.24179 1041.627 1.6816928e+09
-546.43207 -430.37924 1041.9597 1.6816928e+09
-545.87567 -431.35999 1044.3341 1.6816928e+09
-545.29535 -432.32822 1046.6781 1.6816928e+09
-543.00031 -431.9389 1045.7356 1.6816928e+09
-541.56549 -432.23355 1046.449 1.6816928e+09
-540.00861 -432.4324 1046.9304 1.6816928e+09
-538.50708 -432.67706 1047.5228 1.6816928e+09
-523.97754 -422.42044 1022.6912 127
-439.67612 -355.65579 861.05219 127
-245.10808 -198.94101 481.64151 127
-70.232216 -57.197594 138.4769 127
-38.705856 -31.629898 76.576828 127
-124.51936 -102.104 247.19652 127
-290.50122 -239.02521 578.6864 127
-385.81268 -318.54239 771.19965 127
-403.32672 -334.15494 808.99805 1.315634e+09
-403.07458 -335.10556 811.29956 1.315634e+09
-401.96106 -335.34421 811.87732 1.315634e+09
-400.61621 -335.39084 811.99023 1.315634e+09
-399.16525 -335.34866 811.88812 1.315634e+09
-398.19891 -335.71478 812.77448 1.315634e+09
-398.00064 -336.73331 815.24036 1.315634e+09
-397.47342 -337.47974 817.04755 1.315634e+09
-396.79587 -338.10342 818.55743 1.315634e+09
-395.37582 -338.09662 818.54095 1.315634e+09
-393.8548 -338.00308 818.31451 1.315634e+09
-393.29938 -338.74054 820.09991 1.315634e+09
-392.15591 -338.97504 820.66766 1.315634e+09
-390.94791 -339.15524 821.10388 1.315634e+09
-390.25903 -339.78876 822.6377 127
-389.22647 -340.12653 823.45544 127
-386.99655 -339.41666 821.73688 127
-387.96387 -341.51605 826.81946 1.315634e+09
-389.08759 -343.76907 832.27417 1.315634e+09
-390.36002 -346.17068 838.0885 1.315634e+09
-402.69772 -358.4393 867.79114 127
-441.34882 -394.30829 954.63092 127
-479.68344 -430.16214 1041.4341 127
-491.96307 -442.83261 1072.1096 127
-494.84958 -447.11172 1082.4695 127
-500.20844 -453.66556 1098.3364 127
-450.95844 -410.55325 993.96045 127
-259.01746 -236.70992 573.08105 127
-86.787102 -79.616554 192.75381 127
-75.531944 -69.557831 168.40138 127
-202.56383 -187.26251 453.36758 127
-346.06247 -321.16153 777.54065 127
-380.72864 -354.70813 858.75787 127
-378.84265 -354.32974 857.8418 127
-377.91754 -354.85065 859.10291 127
-377.63086 -355.97745 861.83093 127
-377.33466 -357.10413 864.55865 127
-376.36118 -357.59628 865.75018 127
-375.99847 -358.67499 868.36176 127
-382.13098 -365.98303 886.05475 127
-409.00629 -393.29584 952.17975 127
-454.63974 -438.93927 1062.6837 127
-484.20096 -469.37225 1136.3628 127
-488.43878 -475.405 1150.9683 127
-484.36835 -473.36743 1146.0353 127
-480.22693 -471.24353 1140.8932 127
-474.8847 -467.91895 1132.8442 6.3572307e+08
-467.74869 -462.79208 1120.432 6.3572307e+08
-460.95312 -457.96094 1108.7357 6.3572307e+08
-452.27795 -451.21432 1092.402 6.3572307e+08
-441.32385 -442.1282 1070.4042 127
-430.70059 -433.29855 1049.0275 127
-422.37476 -426.71542 1033.0895 1.6497605e+09
-415.63797 -421.68866 1020.9196 1.6497605e+09
-411.81488 -419.58783 1015.8334 1.6497605e+09
-407.46579 -416.93085 1009.4008 1.6497605e+09
-403.65543 -414.80463 1004.2531 1.6497605e+09
-398.57294 -411.3472 995.88257 1.6497605e+09
-394.38239 -408.78433 989.67786 1.6497605e+09
-390.92325 -406.96063 985.26257 1.6497605e+09
-386.64264 -404.26205 978.72925 1.6497605e+09
-383.20792 -402.42813 974.28931 1.6497605e+09
-380.49673 -401.34125 971.65796 1.6497605e+09
-379.02701 -401.56 972.1875 1.6497605e+09
-376.70911 -400.87811 970.53662 1.6497605e+09
-373.92642 -399.69327 967.66815 1.6497605e+09
-369.68063 -396.92694 960.9707 1.6497605e+09
-365.82184 -394.55301 955.22339 1.6497605e+09
-362.14685 -392.35678 949.90625 1.6497605e+09
-359.10864 -390.83359 946.21863 1.6497605e+09
-354.37082 -387.43832 937.99854 1.6497605e+09
-350.17807 -384.61053 931.1524 1.6497605e+09
-346.48578 -382.3089 925.58008 1.6497605e+09
-342.08035 -379.19543 918.0423 1.6497605e+09
-337.76547 -376.15384 910.67853 1.6497605e+09
-333.34531 -372.96603 902.96075 1.6497605e+09
-329.72156 -370.64359 897.33801 1.6497605e+09
-325.86163 -368.03241 891.01636 1.6497605e+09
-322.61658 -366.09427 886.32404 1.6497605e+09
-319.73749 -364.55493 882.59729 1.6497605e+09
-315.95319 -361.96384 876.3241 1.6497605e+09
-311.67548 -358.77982 868.61554 1.6497605e+09
-308.52725 -356.87152 863.99554 1.6497605e+09
-305.31567 -354.87109 859.1524 1.6497605e+09
-301.17654 -351.76773 851.6391 1.6497605e+09
-297.68808 -349.39767 845.90112 1.6497605e+09
-294.39529 -347.23505 840.66534 1.6497605e+09
-290.8165 -344.71198 834.55695 1.6497605e+09
-287.44022 -342.40506 828.97186 1.6497605e+09
-284.80319 -340.96011 825.47357 1.6497605e+09
-281.47324 -338.6669 819.92163 1.6497605e+09
-278.21069 -336.43204 814.51099 1.6497605e+09
-275.31165 -334.61627 810.11499 1.6497605e+09
-271.09622 -331.17392 801.78094 1.6497605e+09
-258.61658 -317.5488 768.79413 127
-211.92314 -261.55643 633.23511 127
-119.81848 -148.64668 359.87759 7.5689856e+08
-48.104755 -59.989536 145.23627 6.2817504e+08
-39.086948 -48.998989 118.62787 127
-89.981316 -113.39332 274.52826 127
-154.88092 -196.21167 475.03369 127
-191.74101 -244.20012 591.21503 127
-199.5157 -255.46075 618.47736 1.6497605e+09
-198.97432 -256.1373 620.11523 1.6497605e+09
-196.81473 -254.72678 616.70032 1.6497605e+09
-195.11023 -253.89313 614.68207 1.6497605e+09
-193.53307 -253.21698 613.0451 1.6497605e+09
-191.80142 -252.33015 610.89807 1.6497605e+09
-190.28641 -251.72012 609.42114 1.6497605e+09
-189.18176 -251.64917 609.24939 1.6497605e+09
-187.84224 -251.26323 608.315 1.6497605e+09
-186.08353 -250.3091 606.005 1.6497605e+09
-184.57185 -249.67838 604.47803 1.6497605e+09
-183.52272 -249.66972 604.45709 1.6497605e+09
-182.85312 -250.18027 605.69312 1.6497605e+09
-181.7979 -250.16602 605.65863 1.6497605e+09
-180.09254 -249.25183 603.44537 1.6497605e+09
-178.84985 -248.97105 602.76556 1.6497605e+09
-177.97505 -249.20213 603.32501 1.6497605e+09
-177.46202 -249.94543 605.12457 1.6497605e+09
-176.35486 -249.85582 604.90759 1.6497605e+09
-175.30208 -249.84262 604.87567 1.6497605e+09
-174.30876 -249.91452 605.04974 1.6497605e+09
-173.33847 -250.02049 605.30634 1.6497605e+09
-172.71767 -250.63489 606.79376 1.6497605e+09
-172.0648 -251.20999 608.1861 1.6497605e+09
-171.1819 -251.45424 608.77747 1.6497605e+09
-170.38275 -251.82529 609.67578 1.6497605e+09
-169.51004 -252.09155 610.32037 1.6497605e+09
-168.61931 -252.33417 610.90778 1.6497605e+09
-168.87222 -254.30202 615.672 1.6497605e+09
-170.44476 -258.29459 625.33807 1.6497605e+09
-172.28175 -262.7413 636.10376 5.2159536e+08
-173.28017 -265.95795 643.8913 1.6497605e+09
-172.02466 -265.73438 643.35004 1.6497605e+09
-170.23003 -264.66965 640.77234 1.6497605e+09
-168.55655 -263.78064 638.62 1.6497605e+09
-166.62291 -262.47009 635.44714 1.6497605e+09
-164.77072 -261.27136 632.54498 1.6497605e+09
-162.76169 -259.80627 628.99799 1.6497605e+09
-160.60327 -258.08148 624.8222 1.6497605e+09
-158.84032 -256.97314 622.13892 1.6497605e+09
-157.41719 -256.40326 620.75922 1.6497605e+09
-155.46541 -254.95859 617.2616 1.6497605e+09
-153.39586 -253.29951 613.24493 1.6497605e+09
-151.36142 -251.67578 609.31378 1.6497605e+09
-149.76836 -250.76837 607.11694 1.6497605e+09
-148.19231 -249.87686 604.95856 1.6497605e+09
-146.44925 -248.68912 602.08301 1.6497605e+09
-144.8056 -247.65439 599.57794 1.6497605e+09
-143.16583 -246.61148 597.05298 1.6497605e+09
-140.98343 -244.61197 592.2121 1.6497605e+09
-139.06384 -243.04257 588.4126 1.6497605e+09
-137.52145 -242.11421 586.16498 1.6497605e+09
-136.14117 -241.45956 584.58008 1.6497605e+09
-134.59799 -240.50412 582.26691 1.6497605e+09
-132.96877 -239.37936 579.54382 1.6497605e+09
-131.32788 -238.21643 576.72839 1.6497605e+09
-129.49106 -236.67764 573.00287 1.6497605e+09
-127.77359 -235.33498 569.75226 1.6497605e+09
-126.0552 -233.96979 566.44714 1.6497605e+09
-124.80715 -233.46309 565.2204 1.6497605e+09
-123.47906 -232.7975 563.60901 1.6497605e+09
-121.82832 -231.50822 560.48761 1.6497605e+09
-120.31181 -230.45544 557.93884 1.6497605e+09
-118.76829 -229.33351 555.2226 1.6497605e+09
-117.26486 -228.27141 552.65118 1.6497605e+09
-116.0482 -227.75467 551.40015 1.6497605e+09
-114.87209 -227.30965 550.32275 1.6497605e+09
-698.19641 -462.29657 1124.2513 6.0841376e+08
-697.44897 -463.08801 1126.176 6.0841376e+08
-697.61652 -464.49313 1129.5931 6.0841376e+08
-697.42987 -465.66959 1132.4542 6.0841376e+08
-697.00958 -466.69623 1134.9508 6.0841376e+08
-694.73724 -466.48514 1134.4375 127
-691.45239 -465.59103 1132.2631 127
-678.97345 -458.48343 1114.9783 127
-650.58099 -440.5592 1071.3885 127
-602.89709 -409.43188 995.69055 127
-540.91974 -368.39215 895.88678 127
-583.9494 -398.83691 969.92487 127
-604.62103 -414.14227 1007.1458 127
-599.92572 -412.11041 1002.2045 1.6564781e+09
-599.50861 -413.01413 1004.4022 1.6816928e+09
-598.21741 -413.31915 1005.144 1.6816928e+09
-596.9978 -413.67554 1006.0107 1.6816928e+09
-594.54816 -413.17926 1004.8038 1.6816928e+09
-593.45294 -413.62399 1005.8854 1.6816928e+09
-593.06415 -414.56522 1008.1743 1.6816928e+09
-592.47333 -415.37033 1010.1322 1.6816928e+09
-592.2793 -416.45914 1012.7801 1.6816928e+09
-589.98248 -416.07153 1011.8375 1.6816928e+09
-588.46899 -416.23563 1012.2365 1.6816928e+09
-588.26788 -417.33176 1014.9022 1.6816928e+09
-586.97333 -417.6564 1015.6917 1.6816928e+09
-585.65698 -417.96744 1016.4481 1.6816928e+09
-584.28973 -418.2439 1017.1204 1.6816928e+09
-582.62543 -418.30872 1017.278 1.6816928e+09
-581.43152 -418.71271 1018.2605 1.6816928e+09
-580.58325 -419.3688 1019.856 1.6816928e+09
-579.9624 -420.19366 1021.862 1.6816928e+09
-579.40918 -421.07272 1023.9998 1.6816928e+09
-577.13861 -420.70529 1023.1062 1.6816928e+09
-575.81696 -421.02942 1023.8944 1.6816928e+09
-574.83881 -421.60748 1025.3002 1.6816928e+09
-572.94043 -421.51205 1025.0682 1.6816928e+09
-570.42029 -420.95728 1023.7191 1.6816928e+09
-569.68585 -421.72092 1025.576 1.6816928e+09
-570.44806 -423.60068 1030.1475 1.6816928e+09
-569.40875 -424.15024 1031.4839 1.6816928e+09
-566.90912 -423.61206 1030.1752 127
-567.05896 -425.05649 1033.6879 1.6816928e+09
-566.27979 -425.81146 1035.5238 1.6816928e+09
-563.58215 -425.12408 1033.8523 1.6816928e+09
-560.64899 -424.25409 1031.7365 1.6816928e+09
-559.85571 -425.00305 1033.5579 1.6816928e+09
-559.89673 -426.39209 1036.9358 1.6816928e+09
-559.00653 -427.07864 1038.6055 1.6816928e+09
-557.85345 -427.56812 1039.7958 1.6816928e+09
-555.34094 -427.01544 1038.4518 1.6816928e+09
-553.26117 -426.793 1037.9108 1.6816928e+09
-553.89563 -428.66971 1042.4747 1.6816928e+09
-552.68317 -429.1246 1043.5811 1.6816928e+09
-549.77753 -428.26355 1041.4871 127
-548.98602 -429.04913 1043.3975 1.6816928e+09
-547.36053 -429.18591 1043.7301 1.6816928e+09
-546.0863 -429.59995 1044.7371 1.6816928e+09
-546.24011 -431.14386 1048.4916 1.6816928e+09
-544.94513 -431.55075 1049.4811 1.6816928e+09
-544.383 -432.54257 1051.8931 1.6816928e+09
-543.14935 -433.00574 1053.0194 1.6816928e+09
-540.94257 -432.6936 1052.2604 1.6816928e+09
-537.08722 -431.05621 1048.2784 1.6816928e+09
-507.3475 -408.56332 993.57837 127
-377.66904 -305.16516 742.1261 127
-160.4171 -130.06154 316.29449 1.3691331e+09
-43.412228 -35.317505 85.888054 127
-49.540016 -40.44072 98.347115 127
-173.06525 -141.76285 344.75073 127
-326.76559 -268.58633 653.17065 127
-392.0228 -323.33972 786.32446 127
-401.43378 -332.25153 807.99701 1.315634e+09
-400.6506 -332.75873 809.23047 1.315634e+09
-400.55551 -333.84299 811.86719 1.315634e+09
-400.00912 -334.55737 813.60449 1.315634e+09
-398.37817 -334.36649 813.14032 1.315634e+09
-397.12021 -334.48846 813.43689 1.315634e+09
-396.76517 -335.37445 815.59161 1.315634e+09
-396.24936 -336.1304 817.42999 1.315634e+09
-394.7709 -336.07227 817.28857 1.315634e+09
-393.23569 -335.96521 817.0282 1.315634e+09
-392.57608 -336.60812 818.59174 1.315634e+09
-391.65152 -337.02774 819.61212 1.315634e+09
-391.52271 -338.13757 822.31116 1.315634e+09
-390.9881 -338.90378 824.1745 1.315634e+09
-389.35315 -338.71832 823.72345 1.315634e+09
-386.83228 -337.758 821.38806 127
-388.04263 -340.06042 826.9873 1.315634e+09
-388.91028 -342.07843 831.8949 1.315634e+09
-390.49197 -344.74179 838.37183 1.315634e+09
-398.04941 -352.72015 857.77429 127
-426.43686 -379.28485 922.37653 127
-464.02917 -414.2663 1007.4473 127
-478.75009 -429.01532 1043.3152 127
-488.09436 -439.0394 1067.6926 127
-512.7677 -462.98007 1125.9136 127
-510.99423 -463.13309 1126.2856 127
-393.41888 -357.93112 870.44678 127
-188.67488 -172.31343 419.04617 127
-65.012947 -59.603539 144.94885 127
-89.990784 -82.82164 201.41258 127
-209.67726 -193.72122 471.10742 127
-293.20395 -271.94574 661.34033 127
-349.30478 -325.24463 790.95703 127
-375.04593 -350.58218 852.57501 127
-379.22491 -355.88422 865.46893 127
-378.4053 -356.51868 867.01184 127
-376.75912 -356.37628 866.66559 127
-374.84003 -355.9736 865.68634 1.7345752e+09
-375.48312 -358.01068 870.64026 127
-384.39227 -367.97717 894.87756 127
-415.44095 -399.30356 971.05975 127
-457.59201 -441.59796 1073.9148 127
-478.55832 -463.7088 1127.6857 6.3572307e+08
-480.47391 -467.46521 1136.8209 127
-476.63916 -465.63483 1132.3696 6.3572307e+08
-470.09189 -461.12857 1121.4109 6.3572307e+08
-463.17596 -456.22202 1109.4788 6.3572307e+08
-455.20401 -450.23019 1094.9073 6.3572307e+08
-443.4682 -440.4502 1071.1235 127
-431.9502 -430.8056 1047.6689 127
-425.11523 -425.77023 1035.4236 1.6497605e+09
-419.91824 -422.33978 1027.0811 1.6497605e+09
-414.75925 -418.91858 1018.7612 1.6497605e+09
-410.78116 -416.66614 1013.2835 1.6497605e+09
-406.08292 -413.66086 1005.975 1.6497605e+09
-401.10623 -410.34491 997.91095 1.6497605e+09
-395.57071 -406.42621 988.3811 1.6497605e+09
-392.08749 -404.59134 983.91901 1.6497605e+09
-388.84009 -402.98489 980.01227 1.6497605e+09
-384.62173 -400.35376 973.61365 1.6497605e+09
-381.1701 -398.50113 969.10828 1.6497605e+09
-377.81647 -396.73505 964.81342 1.6497605e+09
-374.80157 -395.31067 961.34943 1.6497605e+09
-372.78961 -394.93613 960.4386 1.6497605e+09
-370.71719 -394.4939 959.36316 1.6497605e+09
-367.35013 -392.66382 954.91266 1.6497605e+09
-363.76138 -390.57925 949.8432 1.6497605e+09
-360.40979 -388.73163 945.34998 1.6497605e+09
-357.51678 -387.36407 942.02423 1.6497605e+09
-352.66382 -383.85074 933.48022 1.6497605e+09
-348.19098 -380.72079 925.86859 1.6497605e+09
-343.62402 -377.45862 917.93536 1.6497605e+09
-339.34976 -374.48923 910.71417 1.6497605e+09
-335.56799 -372.03827 904.75372 1.6497605e+09
-331.9964 -369.79852 899.30688 1.6497605e+09
-328.19754 -367.28339 893.19037 1.6497605e+09
-323.78168 -364.05078 885.32904 1.6497605e+09
-320.50357 -362.07288 880.51898 1.6497605e+09
